ply
format ascii 1.0
element vertex 1127
property float x
property float y
property float z
property uchar red
property uchar green
property uchar blue
end_header
10.471204 -7.874346 -17.156021 67 69 62 
10.500000 -7.833333 -17.066668 53 54 46 
10.583333 -7.833333 -17.066668 30 36 25 
-8.546584 -9.440994 -20.352795 78 81 87 
-8.395061 -9.382716 -20.227161 85 88 95 
-8.296296 -9.382716 -20.227161 87 91 100 
-8.197531 -9.382716 -20.227161 81 86 91 
-8.149068 -9.440994 -20.352795 76 75 65 
-8.100000 -9.500000 -20.480000 108 93 77 
-8.000000 -9.500000 -20.480000 122 112 98 
-7.949686 -9.559749 -20.608805 92 90 82 
-7.949045 -9.681529 -20.871338 59 59 53 
-7.948387 -9.806452 -21.140646 41 38 28 
-7.845161 -9.806452 -21.140646 58 45 31 
-7.792208 -9.870130 -21.277922 82 63 47 
-7.893333 -10.133333 -21.845333 106 84 59 
-7.945578 -10.340137 -22.291157 117 96 68 
-7.944828 -10.482759 -22.598621 102 83 59 
-7.888889 -10.555555 -22.755556 94 77 57 
-7.777778 -10.555555 -22.755556 101 88 68 
-7.720280 -10.629371 -22.914686 103 93 70 
-7.608392 -10.629371 -22.914686 88 80 57 
-7.496503 -10.629371 -22.914686 77 72 50 
-7.384615 -10.629371 -22.914686 54 51 34 
-7.323944 -10.704226 -23.076057 37 36 29 
-7.211267 -10.704226 -23.076057 31 31 29 
-7.048951 -10.629371 -22.914686 28 27 26 
-6.937063 -10.629371 -22.914686 29 29 21 
-6.777778 -10.555555 -22.755556 54 55 35 
-6.530612 -10.340137 -22.291157 79 79 56 
-6.251656 -10.066225 -21.700663 73 72 51 
-5.948718 -9.743589 -21.005129 66 65 45 
-5.846154 -9.743589 -21.005129 77 75 56 
-5.707006 -9.681529 -20.871338 66 65 46 
-5.534591 -9.559749 -20.608805 84 82 64 
-5.433962 -9.559749 -20.608805 81 79 62 
-5.333333 -9.559749 -20.608805 76 73 57 
-8.533334 -20.266666 -43.690666 82 82 79 
-8.432432 -20.540541 -44.281082 91 90 84 
-9.500000 -23.750000 -51.200001 87 81 71 
-9.250000 -23.750000 -51.200001 76 69 59 
-9.000000 -23.750000 -51.200001 60 53 44 
-8.750000 -23.750000 -51.200001 57 45 36 
-8.500000 -23.750000 -51.200001 74 54 48 
-8.250000 -23.750000 -51.200001 73 50 46 
-8.000000 -23.750000 -51.200001 78 59 54 
-7.750000 -23.750000 -51.200001 100 87 79 
-7.500000 -23.750000 -51.200001 108 99 87 
-7.250000 -23.750000 -51.200001 103 95 81 
-7.000000 -23.750000 -51.200001 102 92 76 
-6.750000 -23.750000 -51.200001 105 97 81 
-6.500000 -23.750000 -51.200001 81 74 59 
-6.250000 -23.750000 -51.200001 62 54 41 
-6.000000 -23.750000 -51.200001 61 51 36 
-5.750000 -23.750000 -51.200001 80 71 54 
-5.500000 -23.750000 -51.200001 99 88 72 
-5.250000 -23.750000 -51.200001 99 87 71 
-5.000000 -23.750000 -51.200001 93 81 65 
-4.750000 -23.750000 -51.200001 89 80 62 
-4.500000 -23.750000 -51.200001 73 65 49 
-4.250000 -23.750000 -51.200001 62 56 43 
-4.000000 -23.750000 -51.200001 61 56 45 
-3.750000 -23.750000 -51.200001 60 56 44 
-3.500000 -23.750000 -51.200001 63 57 43 
-3.250000 -23.750000 -51.200001 65 58 39 
-3.000000 -23.750000 -51.200001 69 59 39 
-2.750000 -23.750000 -51.200001 72 63 41 
-2.500000 -23.750000 -51.200001 77 69 46 
-2.250000 -23.750000 -51.200001 76 68 46 
-2.000000 -23.750000 -51.200001 82 69 45 
-1.750000 -23.750000 -51.200001 86 73 47 
-1.500000 -23.750000 -51.200001 83 71 46 
-1.250000 -23.750000 -51.200001 79 69 43 
-1.000000 -23.750000 -51.200001 88 76 50 
-0.750000 -23.750000 -51.200001 99 86 59 
-0.500000 -23.750000 -51.200001 90 77 50 
-0.250000 -23.750000 -51.200001 82 72 47 
0.000000 -23.750000 -51.200001 82 72 48 
0.250000 -23.750000 -51.200001 83 71 48 
0.500000 -23.750000 -51.200001 84 71 46 
0.750000 -23.750000 -51.200001 87 73 48 
1.000000 -23.750000 -51.200001 93 80 54 
1.250000 -23.750000 -51.200001 102 89 62 
1.500000 -23.750000 -51.200001 109 96 69 
1.750000 -23.750000 -51.200001 113 99 73 
2.000000 -23.750000 -51.200001 114 101 74 
2.250000 -23.750000 -51.200001 121 106 76 
2.500000 -23.750000 -51.200001 131 115 88 
2.750000 -23.750000 -51.200001 157 137 94 
3.000000 -23.750000 -51.200001 195 164 98 
3.250000 -23.750000 -51.200001 197 165 97 
3.500000 -23.750000 -51.200001 194 165 106 
3.750000 -23.750000 -51.200001 196 169 116 
4.000000 -23.750000 -51.200001 184 157 102 
4.250000 -23.750000 -51.200001 193 164 99 
4.500000 -23.750000 -51.200001 144 121 68 
4.750000 -23.750000 -51.200001 82 65 30 
5.000000 -23.750000 -51.200001 77 63 33 
5.250000 -23.750000 -51.200001 133 117 86 
5.500000 -23.750000 -51.200001 156 137 100 
5.750000 -23.750000 -51.200001 176 156 113 
6.000000 -23.750000 -51.200001 183 160 118 
6.250000 -23.750000 -51.200001 165 140 108 
6.500000 -23.750000 -51.200001 158 125 103 
6.750000 -23.750000 -51.200001 144 93 79 
7.000000 -23.750000 -51.200001 147 90 79 
7.250000 -23.750000 -51.200001 140 88 76 
6.486486 -20.540541 -44.281082 123 79 68 
6.526316 -20.000000 -43.115791 71 43 33 
6.564103 -19.487179 -42.010258 69 52 33 
6.683544 -19.240507 -41.478481 113 99 64 
6.800000 -19.000000 -40.959999 165 150 107 
7.000000 -19.000000 -40.959999 169 158 134 
7.200000 -19.000000 -40.959999 167 161 149 
7.308642 -18.765432 -40.454323 168 167 161 
7.506173 -18.765432 -40.454323 154 155 150 
7.609756 -18.536585 -39.960976 142 136 122 
7.619048 -18.095238 -39.009525 149 133 102 
7.627907 -17.674419 -38.102325 170 146 106 
7.466667 -16.888889 -36.408890 145 121 87 
7.560440 -16.703297 -36.008793 73 61 42 
7.569892 -16.344086 -35.234409 50 47 31 
7.659575 -16.170214 -34.859573 76 73 48 
7.747368 -16.000000 -34.492634 136 127 99 
7.833333 -15.833333 -34.133335 157 143 119 
8.000000 -15.833333 -34.133335 140 129 111 
8.082474 -15.670103 -33.781445 135 118 102 
8.247422 -15.670103 -33.781445 98 76 58 
8.326530 -15.510204 -33.436737 102 82 61 
8.320000 -15.200000 -32.768002 121 103 78 
8.313725 -14.901960 -32.125492 144 124 101 
8.307693 -14.615385 -31.507692 117 103 79 
8.224299 -14.205607 -30.624300 138 122 99 
8.220183 -13.944954 -30.062386 144 126 103 
8.216216 -13.693694 -29.520721 132 119 96 
8.360360 -13.693694 -29.520721 110 98 79 
8.428572 -13.571428 -29.257143 75 70 51 
8.571428 -13.571428 -29.257143 113 102 86 
8.637168 -13.451327 -28.998230 78 68 57 
8.701755 -13.333333 -28.743860 41 38 32 
8.765218 -13.217391 -28.493914 32 31 26 
8.827586 -13.103448 -28.248276 19 20 15 
8.813560 -12.881356 -27.769491 24 24 14 
8.727273 -12.561983 -27.080992 42 42 25 
8.645162 -12.258064 -26.425806 51 51 32 
8.634921 -12.063492 -26.006350 94 92 68 
8.692913 -11.968504 -25.801575 139 125 98 
8.750000 -11.875000 -25.600000 147 130 102 
8.875000 -11.875000 -25.600000 151 132 105 
9.000000 -11.875000 -25.600000 147 127 103 
9.054263 -11.782946 -25.401550 145 127 101 
9.038168 -11.603053 -25.013741 138 120 93 
9.022556 -11.428572 -24.637594 144 127 99 
9.007407 -11.259259 -24.272593 146 129 104 
8.863309 -10.935252 -23.574100 136 118 96 
8.851064 -10.780142 -23.239717 91 77 67 
8.777778 -10.555555 -22.755556 60 58 56 
8.888889 -10.555555 -22.755556 56 57 57 
9.000000 -10.555555 -22.755556 34 34 33 
9.048276 -10.482759 -22.598621 28 28 27 
9.095890 -10.410959 -22.443836 20 20 19 
9.081081 -10.270270 -22.140541 20 20 15 
9.127517 -10.201343 -21.991947 48 48 35 
9.112583 -10.066225 -21.700663 67 66 47 
8.980645 -9.806452 -21.140646 107 104 79 
8.968153 -9.681529 -20.871338 144 132 109 
9.012658 -9.620254 -20.739241 132 125 107 
9.056603 -9.559749 -20.608805 153 155 147 
9.157232 -9.559749 -20.608805 182 184 187 
9.200000 -9.500000 -20.480000 173 172 179 
9.300000 -9.500000 -20.480000 159 159 167 
9.341615 -9.440994 -20.352795 165 165 174 
9.382716 -9.382716 -20.227161 178 180 185 
9.423313 -9.325153 -20.103067 166 164 157 
9.463414 -9.268292 -19.980488 159 147 129 
9.503031 -9.212121 -19.859394 172 157 136 
9.485030 -9.101796 -19.621557 172 154 134 
9.523809 -9.047619 -19.504763 183 163 141 
9.450293 -8.888889 -19.162573 177 153 135 
9.488372 -8.837210 -19.051163 157 137 124 
9.526011 -8.786127 -18.941040 146 128 121 
9.563218 -8.735632 -18.832184 112 94 88 
9.655172 -8.735632 -18.832184 80 73 64 
9.691428 -8.685715 -18.724571 95 93 82 
9.727273 -8.636364 -18.618181 135 126 112 
9.818182 -8.636364 -18.618181 131 120 110 
9.909091 -8.636364 -18.618181 101 96 89 
10.000000 -8.636364 -18.618181 86 84 79 
10.090909 -8.636364 -18.618181 105 102 94 
10.181818 -8.636364 -18.618181 123 117 107 
10.272727 -8.636364 -18.618181 113 108 102 
10.305085 -8.587570 -18.512995 94 90 87 
10.395480 -8.587570 -18.512995 111 103 99 
10.485876 -8.587570 -18.512995 116 104 100 
10.576271 -8.587570 -18.512995 93 89 83 
10.606742 -8.539326 -18.408989 112 111 103 
10.696630 -8.539326 -18.408989 143 128 122 
10.726257 -8.491620 -18.306145 134 116 109 
10.755555 -8.444445 -18.204445 98 88 85 
10.725275 -8.351648 -18.004396 89 86 85 
10.580646 -8.172043 -17.617205 106 103 98 
10.553191 -8.085107 -17.429787 125 119 111 
10.526316 -8.000000 -17.246317 108 105 92 
10.610526 -8.000000 -17.246317 61 70 47 
-5.352941 -5.647059 -12.047059 121 124 132 
-8.600000 -9.600000 -20.480000 73 74 81 
-8.447205 -9.540373 -20.352795 83 85 91 
-8.296296 -9.481482 -20.227161 89 91 98 
-8.248447 -9.540373 -20.352795 87 89 96 
-8.200000 -9.600000 -20.480000 89 88 83 
-8.100000 -9.600000 -20.480000 102 94 80 
-8.000000 -9.600000 -20.480000 112 104 90 
-8.000000 -9.721519 -20.739241 90 87 79 
-8.000000 -9.846154 -21.005129 55 54 50 
-7.948387 -9.909678 -21.140646 43 40 33 
-7.896104 -9.974026 -21.277922 50 41 29 
-7.792208 -9.974026 -21.277922 77 60 46 
-7.893333 -10.240000 -21.845333 103 81 58 
-7.945578 -10.448979 -22.291157 113 93 66 
-7.944828 -10.593103 -22.598621 102 86 63 
-7.888889 -10.666667 -22.755556 93 80 60 
-7.832168 -10.741259 -22.914686 93 82 62 
-7.774648 -10.816901 -23.076057 101 91 67 
-7.661972 -10.816901 -23.076057 90 80 55 
-7.549296 -10.816901 -23.076057 85 76 51 
-7.436620 -10.816901 -23.076057 65 59 38 
-7.375886 -10.893617 -23.239717 34 34 21 
-7.262411 -10.893617 -23.239717 36 37 32 
-7.148936 -10.893617 -23.239717 35 35 32 
-7.035461 -10.893617 -23.239717 26 27 20 
-6.873240 -10.816901 -23.076057 40 41 24 
-6.666667 -10.666667 -22.755556 77 77 55 
-6.465754 -10.520548 -22.443836 77 76 55 
-6.228188 -10.308724 -21.991947 71 69 49 
-5.922078 -9.974026 -21.277922 83 80 61 
-5.780645 -9.909678 -21.140646 79 76 57 
-5.569620 -9.721519 -20.739241 79 77 59 
-5.433962 -9.660378 -20.608805 77 75 57 
-5.367089 -9.721519 -20.739241 80 78 62 
-10.000000 -24.000000 -51.200001 74 74 64 
-9.750000 -24.000000 -51.200001 76 75 67 
-9.500000 -24.000000 -51.200001 76 72 63 
-9.250000 -24.000000 -51.200001 65 61 52 
-9.000000 -24.000000 -51.200001 54 49 39 
-8.750000 -24.000000 -51.200001 54 43 34 
-8.500000 -24.000000 -51.200001 75 55 49 
-8.250000 -24.000000 -51.200001 79 56 52 
-8.000000 -24.000000 -51.200001 77 56 51 
-7.750000 -24.000000 -51.200001 90 73 62 
-7.500000 -24.000000 -51.200001 101 88 72 
-7.250000 -24.000000 -51.200001 103 96 81 
-7.000000 -24.000000 -51.200001 99 92 78 
-6.750000 -24.000000 -51.200001 99 92 77 
-6.500000 -24.000000 -51.200001 81 74 58 
-6.250000 -24.000000 -51.200001 59 50 37 
-6.000000 -24.000000 -51.200001 57 47 32 
-5.750000 -24.000000 -51.200001 78 68 51 
-5.500000 -24.000000 -51.200001 95 84 67 
-5.250000 -24.000000 -51.200001 101 89 73 
-5.000000 -24.000000 -51.200001 97 85 69 
-4.750000 -24.000000 -51.200001 87 77 59 
-4.500000 -24.000000 -51.200001 70 63 46 
-4.250000 -24.000000 -51.200001 65 58 43 
-4.000000 -24.000000 -51.200001 66 61 46 
-3.750000 -24.000000 -51.200001 69 63 49 
-3.500000 -24.000000 -51.200001 64 57 44 
-3.250000 -24.000000 -51.200001 56 49 33 
-3.000000 -24.000000 -51.200001 68 57 40 
-2.750000 -24.000000 -51.200001 72 63 45 
-2.500000 -24.000000 -51.200001 71 64 45 
-2.250000 -24.000000 -51.200001 70 61 43 
-2.000000 -24.000000 -51.200001 69 60 46 
-1.750000 -24.000000 -51.200001 69 61 48 
-1.500000 -24.000000 -51.200001 68 62 46 
-1.250000 -24.000000 -51.200001 67 61 43 
-1.000000 -24.000000 -51.200001 73 63 45 
-0.750000 -24.000000 -51.200001 79 68 48 
-0.500000 -24.000000 -51.200001 78 68 48 
-0.250000 -24.000000 -51.200001 77 68 50 
0.000000 -24.000000 -51.200001 78 68 50 
0.250000 -24.000000 -51.200001 81 70 51 
0.500000 -24.000000 -51.200001 89 77 58 
0.750000 -24.000000 -51.200001 98 85 65 
1.000000 -24.000000 -51.200001 104 90 68 
1.250000 -24.000000 -51.200001 106 91 69 
1.500000 -24.000000 -51.200001 101 87 64 
1.750000 -24.000000 -51.200001 107 92 69 
2.000000 -24.000000 -51.200001 127 113 88 
2.250000 -24.000000 -51.200001 149 131 106 
2.500000 -24.000000 -51.200001 156 137 109 
2.750000 -24.000000 -51.200001 164 142 98 
3.000000 -24.000000 -51.200001 194 162 100 
3.250000 -24.000000 -51.200001 195 165 102 
3.500000 -24.000000 -51.200001 212 188 131 
3.750000 -24.000000 -51.200001 200 175 120 
4.000000 -24.000000 -51.200001 193 166 109 
4.250000 -24.000000 -51.200001 200 171 106 
4.500000 -24.000000 -51.200001 152 125 70 
4.750000 -24.000000 -51.200001 112 88 41 
5.000000 -24.000000 -51.200001 94 77 37 
5.250000 -24.000000 -51.200001 138 124 89 
5.500000 -24.000000 -51.200001 174 156 121 
5.750000 -24.000000 -51.200001 171 149 111 
6.000000 -24.000000 -51.200001 156 136 96 
6.250000 -24.000000 -51.200001 165 146 109 
6.500000 -24.000000 -51.200001 165 134 106 
6.750000 -24.000000 -51.200001 146 93 78 
7.000000 -24.000000 -51.200001 148 90 78 
7.250000 -24.000000 -51.200001 142 89 76 
6.486486 -20.756756 -44.281082 125 80 68 
6.526316 -20.210526 -43.115791 75 47 36 
6.564103 -19.692308 -42.010258 81 62 41 
6.683544 -19.443037 -41.478481 130 112 75 
6.800000 -19.200001 -40.959999 169 152 107 
7.000000 -19.200001 -40.959999 167 156 135 
7.200000 -19.200001 -40.959999 177 172 168 
7.308642 -18.962963 -40.454323 156 152 147 
7.506173 -18.962963 -40.454323 138 130 112 
7.609756 -18.731707 -39.960976 156 138 101 
7.619048 -18.285715 -39.009525 178 151 103 
7.627907 -17.860466 -38.102325 174 147 105 
7.466667 -17.066668 -36.408890 127 109 81 
7.560440 -16.879122 -36.008793 83 77 59 
7.569892 -16.516129 -35.234409 76 74 55 
7.578948 -16.168421 -34.492634 119 111 87 
7.747368 -16.168421 -34.492634 156 141 116 
7.833333 -16.000000 -34.133335 149 134 111 
8.000000 -16.000000 -34.133335 146 137 122 
8.082474 -15.835052 -33.781445 131 119 103 
8.163265 -15.673470 -33.436737 108 92 69 
8.242424 -15.515152 -33.098991 128 113 86 
8.320000 -15.360000 -32.768002 153 136 108 
8.233009 -14.912621 -31.813593 157 139 115 
8.228572 -14.628572 -31.207619 103 92 69 
8.224299 -14.355140 -30.624300 118 107 84 
8.220183 -14.091743 -30.062386 131 116 95 
8.216216 -13.837838 -29.520721 133 123 100 
8.285714 -13.714286 -29.257143 132 123 101 
8.428572 -13.714286 -29.257143 85 80 62 
8.571428 -13.714286 -29.257143 71 69 58 
8.637168 -13.592920 -28.998230 55 58 49 
8.701755 -13.473684 -28.743860 52 59 50 
8.765218 -13.356522 -28.493914 53 55 46 
8.752137 -13.128205 -28.006838 40 40 32 
8.739496 -12.907563 -27.536135 35 34 24 
8.727273 -12.694215 -27.080992 43 43 28 
8.645162 -12.387096 -26.425806 51 53 35 
8.634921 -12.190476 -26.006350 80 79 54 
8.692913 -12.094488 -25.801575 139 126 98 
8.750000 -12.000000 -25.600000 159 142 113 
8.875000 -12.000000 -25.600000 152 132 104 
8.930233 -11.906977 -25.401550 138 119 94 
9.054263 -11.906977 -25.401550 139 121 97 
9.038168 -11.725191 -25.013741 144 126 102 
9.022556 -11.548872 -24.637594 143 125 100 
9.007407 -11.377778 -24.272593 134 117 94 
8.863309 -11.050360 -23.574100 130 114 94 
8.788733 -10.816901 -23.076057 75 65 57 
8.777778 -10.666667 -22.755556 44 44 44 
8.888889 -10.666667 -22.755556 44 46 46 
9.000000 -10.666667 -22.755556 46 46 44 
9.048276 -10.593103 -22.598621 45 44 41 
9.095890 -10.520548 -22.443836 20 21 20 
9.081081 -10.378378 -22.140541 25 27 21 
9.127517 -10.308724 -21.991947 60 62 51 
9.112583 -10.172186 -21.700663 68 69 53 
8.980645 -9.909678 -21.140646 86 85 65 
8.968153 -9.783440 -20.871338 134 132 113 
9.012658 -9.721519 -20.739241 165 167 159 
9.056603 -9.660378 -20.608805 177 182 186 
9.157232 -9.660378 -20.608805 164 164 173 
9.200000 -9.600000 -20.480000 158 157 165 
9.300000 -9.600000 -20.480000 165 165 174 
9.341615 -9.540373 -20.352795 184 184 192 
9.382716 -9.481482 -20.227161 189 189 193 
9.423313 -9.423313 -20.103067 169 165 155 
9.463414 -9.365853 -19.980488 176 160 139 
9.503031 -9.309091 -19.859394 210 190 168 
9.600000 -9.309091 -19.859394 188 167 146 
9.580838 -9.197605 -19.621557 168 146 129 
9.619047 -9.142858 -19.504763 155 134 123 
9.600000 -9.035295 -19.275295 127 114 106 
9.637427 -8.982456 -19.162573 106 97 92 
9.674418 -8.930233 -19.051163 110 98 93 
9.710982 -8.878613 -18.941040 93 88 80 
9.747127 -8.827586 -18.832184 87 87 78 
9.782857 -8.777143 -18.724571 116 110 101 
9.874286 -8.777143 -18.724571 128 118 112 
9.965714 -8.777143 -18.724571 119 115 109 
10.000000 -8.727273 -18.618181 96 96 87 
10.090909 -8.727273 -18.618181 112 106 96 
10.181818 -8.727273 -18.618181 136 125 113 
10.272727 -8.727273 -18.618181 125 116 108 
10.363636 -8.727273 -18.618181 92 85 83 
10.454545 -8.727273 -18.618181 99 93 91 
10.545455 -8.727273 -18.618181 119 110 104 
10.576271 -8.677966 -18.512995 102 98 92 
10.666667 -8.677966 -18.512995 96 94 89 
10.757062 -8.677966 -18.512995 124 111 108 
10.786517 -8.629213 -18.408989 127 111 107 
10.876405 -8.629213 -18.408989 102 94 90 
10.966292 -8.629213 -18.408989 85 84 80 
10.994413 -8.581006 -18.306145 108 105 99 
11.083798 -8.581006 -18.306145 149 138 132 
11.235955 -8.629213 -18.408989 128 117 105 
-5.411765 -5.705883 -12.047059 97 102 102 
-5.352941 -5.705883 -12.047059 113 116 123 
-5.294117 -5.705883 -12.047059 104 106 117 
-8.600000 -9.700000 -20.480000 66 67 70 
-8.500000 -9.700000 -20.480000 79 80 83 
-8.347826 -9.639751 -20.352795 81 82 84 
-8.300000 -9.700000 -20.480000 80 81 85 
-8.200000 -9.700000 -20.480000 87 87 84 
-8.100000 -9.700000 -20.480000 103 101 90 
-8.050315 -9.761006 -20.608805 103 97 85 
-8.050956 -9.885350 -20.871338 84 81 74 
-8.051613 -10.012903 -21.140646 58 58 55 
-8.000000 -10.077922 -21.277922 44 42 37 
-7.896104 -10.077922 -21.277922 38 34 23 
-7.947020 -10.278146 -21.700663 63 50 37 
-7.893333 -10.346666 -21.845333 95 76 54 
-7.945578 -10.557823 -22.291157 105 88 61 
-7.944828 -10.703448 -22.598621 99 84 60 
-7.888889 -10.777778 -22.755556 102 87 66 
-7.832168 -10.853147 -22.914686 93 80 62 
-7.774648 -10.929578 -23.076057 92 82 62 
-7.716312 -11.007092 -23.239717 88 78 55 
-7.602837 -11.007092 -23.239717 81 71 47 
-7.489362 -11.007092 -23.239717 67 61 38 
-7.428571 -11.085714 -23.405714 38 39 24 
-7.314286 -11.085714 -23.405714 35 38 31 
-7.251799 -11.165467 -23.574100 38 39 38 
-7.136691 -11.165467 -23.574100 33 34 31 
-6.971428 -11.085714 -23.405714 31 31 23 
-6.760563 -10.929578 -23.076057 50 50 35 
-6.601398 -10.853147 -22.914686 67 65 48 
-6.444445 -10.777778 -22.755556 72 68 50 
-6.333333 -10.777778 -22.755556 85 82 62 
-6.054054 -10.486486 -22.140541 87 82 63 
-5.677419 -10.012903 -21.140646 78 75 57 
-5.574193 -10.012903 -21.140646 72 71 53 
-10.000000 -24.250000 -51.200001 88 90 76 
-9.750000 -24.250000 -51.200001 97 97 85 
-9.500000 -24.250000 -51.200001 85 83 72 
-9.250000 -24.250000 -51.200001 71 69 58 
-9.000000 -24.250000 -51.200001 58 55 44 
-8.750000 -24.250000 -51.200001 57 48 39 
-8.500000 -24.250000 -51.200001 74 55 49 
-8.250000 -24.250000 -51.200001 85 61 57 
-8.000000 -24.250000 -51.200001 82 58 53 
-7.750000 -24.250000 -51.200001 83 63 54 
-7.500000 -24.250000 -51.200001 93 78 65 
-7.250000 -24.250000 -51.200001 102 89 72 
-7.000000 -24.250000 -51.200001 102 93 74 
-6.750000 -24.250000 -51.200001 95 89 74 
-6.500000 -24.250000 -51.200001 72 66 55 
-6.250000 -24.250000 -51.200001 52 45 33 
-6.000000 -24.250000 -51.200001 57 48 33 
-5.750000 -24.250000 -51.200001 80 70 54 
-5.500000 -24.250000 -51.200001 97 86 69 
-5.250000 -24.250000 -51.200001 99 87 71 
-5.000000 -24.250000 -51.200001 100 88 72 
-4.750000 -24.250000 -51.200001 93 84 66 
-4.500000 -24.250000 -51.200001 75 67 49 
-4.250000 -24.250000 -51.200001 74 68 51 
-4.000000 -24.250000 -51.200001 73 68 51 
-3.750000 -24.250000 -51.200001 74 67 52 
-3.500000 -24.250000 -51.200001 60 53 39 
-3.250000 -24.250000 -51.200001 38 33 18 
-3.000000 -24.250000 -51.200001 49 43 25 
-2.750000 -24.250000 -51.200001 64 60 44 
-2.500000 -24.250000 -51.200001 64 63 50 
-2.250000 -24.250000 -51.200001 61 56 45 
-2.000000 -24.250000 -51.200001 66 60 48 
-1.750000 -24.250000 -51.200001 66 59 46 
-1.500000 -24.250000 -51.200001 67 59 46 
-1.250000 -24.250000 -51.200001 66 59 45 
-1.000000 -24.250000 -51.200001 67 63 47 
-0.750000 -24.250000 -51.200001 68 66 48 
-0.500000 -24.250000 -51.200001 66 62 44 
-0.250000 -24.250000 -51.200001 65 58 44 
0.000000 -24.250000 -51.200001 65 59 44 
0.250000 -24.250000 -51.200001 66 60 45 
0.500000 -24.250000 -51.200001 70 64 48 
0.750000 -24.250000 -51.200001 73 68 49 
1.000000 -24.250000 -51.200001 82 76 56 
1.250000 -24.250000 -51.200001 79 69 51 
1.500000 -24.250000 -51.200001 64 53 37 
1.750000 -24.250000 -51.200001 88 75 56 
2.000000 -24.250000 -51.200001 135 118 95 
2.250000 -24.250000 -51.200001 132 114 89 
2.500000 -24.250000 -51.200001 138 124 83 
2.750000 -24.250000 -51.200001 164 141 81 
3.000000 -24.250000 -51.200001 202 169 104 
3.250000 -24.250000 -51.200001 214 185 122 
3.500000 -24.250000 -51.200001 209 182 121 
3.750000 -24.250000 -51.200001 210 179 117 
4.000000 -24.250000 -51.200001 203 172 111 
4.250000 -24.250000 -51.200001 204 173 109 
4.500000 -24.250000 -51.200001 150 123 71 
4.750000 -24.250000 -51.200001 113 88 43 
5.000000 -24.250000 -51.200001 98 79 41 
5.250000 -24.250000 -51.200001 136 121 88 
5.500000 -24.250000 -51.200001 157 140 107 
5.750000 -24.250000 -51.200001 152 132 97 
6.000000 -24.250000 -51.200001 165 146 103 
6.250000 -24.250000 -51.200001 187 161 119 
6.500000 -24.250000 -51.200001 174 133 103 
6.750000 -24.250000 -51.200001 150 94 79 
7.000000 -24.250000 -51.200001 150 92 80 
7.250000 -24.250000 -51.200001 147 93 80 
6.486486 -20.972973 -44.281082 128 82 70 
6.526316 -20.421053 -43.115791 74 46 34 
6.564103 -19.897436 -42.010258 77 59 36 
6.683544 -19.645569 -41.478481 125 106 67 
6.800000 -19.400000 -40.959999 174 154 110 
7.000000 -19.400000 -40.959999 152 139 120 
7.200000 -19.400000 -40.959999 150 143 133 
7.308642 -19.160494 -40.454323 144 130 104 
7.506173 -19.160494 -40.454323 166 142 99 
7.609756 -18.926828 -39.960976 183 155 111 
7.529412 -18.258823 -38.550591 172 145 107 
7.540230 -17.839081 -37.664368 161 140 106 
7.466667 -17.244444 -36.408890 140 126 95 
7.478261 -16.869566 -35.617393 133 123 96 
7.569892 -16.688171 -35.234409 116 104 79 
7.578948 -16.336842 -34.492634 143 129 105 
7.747368 -16.336842 -34.492634 152 139 116 
7.833333 -16.166666 -34.133335 163 150 130 
8.000000 -16.166666 -34.133335 158 147 130 
8.082474 -16.000000 -33.781445 143 130 109 
8.163265 -15.836735 -33.436737 145 128 101 
8.242424 -15.676767 -33.098991 151 133 106 
8.237624 -15.366337 -32.443565 146 128 104 
8.233009 -15.067961 -31.813593 137 121 98 
8.150944 -14.641509 -30.913208 98 90 66 
8.148149 -14.370370 -30.340742 131 122 98 
8.145454 -14.109091 -29.789091 115 101 83 
8.216216 -13.981982 -29.520721 110 98 78 
8.285714 -13.857142 -29.257143 133 122 100 
8.428572 -13.857142 -29.257143 121 115 98 
8.495575 -13.734513 -28.998230 98 101 91 
8.561403 -13.614035 -28.743860 95 99 90 
8.626087 -13.495652 -28.493914 94 96 87 
8.689655 -13.379311 -28.248276 98 96 86 
8.752137 -13.264957 -28.006838 94 88 80 
8.666667 -12.933333 -27.306667 65 58 49 
8.655738 -12.721312 -26.859016 46 43 30 
8.576000 -12.416000 -26.214401 50 53 35 
8.566929 -12.220472 -25.801575 95 93 67 
8.692913 -12.220472 -25.801575 154 140 111 
8.750000 -12.125000 -25.600000 146 129 99 
8.875000 -12.125000 -25.600000 145 127 98 
8.930233 -12.031008 -25.401550 128 111 85 
9.054263 -12.031008 -25.401550 115 99 75 
9.038168 -11.847328 -25.013741 126 110 87 
9.022556 -11.669173 -24.637594 128 111 88 
9.007407 -11.496296 -24.272593 125 109 85 
8.863309 -11.165467 -23.574100 125 111 90 
8.788733 -10.929578 -23.076057 68 60 52 
8.777778 -10.777778 -22.755556 48 48 47 
8.888889 -10.777778 -22.755556 62 63 62 
9.000000 -10.777778 -22.755556 68 64 62 
9.048276 -10.703448 -22.598621 61 55 53 
9.095890 -10.630137 -22.443836 41 40 39 
9.081081 -10.486486 -22.140541 35 37 33 
9.127517 -10.416107 -21.991947 69 71 65 
9.112583 -10.278146 -21.700663 77 82 74 
8.980645 -10.012903 -21.140646 113 119 109 
9.025641 -9.948718 -21.005129 162 167 161 
9.012658 -9.822784 -20.739241 180 182 184 
9.113924 -9.822784 -20.739241 164 165 172 
9.157232 -9.761006 -20.608805 156 158 165 
9.200000 -9.700000 -20.480000 168 171 178 
9.300000 -9.700000 -20.480000 188 190 197 
9.341615 -9.639751 -20.352795 190 190 196 
9.382716 -9.580247 -20.227161 179 179 181 
9.423313 -9.521472 -20.103067 163 158 147 
9.521472 -9.521472 -20.103067 184 165 144 
9.560976 -9.463414 -19.980488 210 185 164 
9.600000 -9.406060 -19.859394 184 159 141 
9.696970 -9.406060 -19.859394 160 140 129 
9.734940 -9.349398 -19.739759 121 106 102 
9.831326 -9.349398 -19.739759 86 83 78 
9.809524 -9.238095 -19.504763 83 83 76 
9.730994 -9.076023 -19.162573 107 101 91 
9.767442 -9.023255 -19.051163 120 110 102 
9.803468 -8.971098 -18.941040 104 97 91 
9.839081 -8.919540 -18.832184 88 88 82 
9.874286 -8.868571 -18.724571 97 95 93 
9.965714 -8.868571 -18.724571 118 114 110 
10.057143 -8.868571 -18.724571 128 121 113 
10.090909 -8.818182 -18.618181 131 122 109 
10.181818 -8.818182 -18.618181 117 109 99 
10.272727 -8.818182 -18.618181 93 87 83 
10.363636 -8.818182 -18.618181 84 81 78 
10.454545 -8.818182 -18.618181 87 86 80 
10.545455 -8.818182 -18.618181 114 110 101 
10.636364 -8.818182 -18.618181 119 113 107 
10.727273 -8.818182 -18.618181 99 94 91 
10.757062 -8.768362 -18.512995 86 82 79 
10.847458 -8.768362 -18.512995 100 96 91 
10.937853 -8.768362 -18.512995 115 109 105 
11.028249 -8.768362 -18.512995 124 116 110 
11.118644 -8.768362 -18.512995 141 133 123 
11.209040 -8.768362 -18.512995 150 137 127 
11.299435 -8.768362 -18.512995 130 119 105 
-5.411765 -5.764706 -12.047059 95 100 100 
-5.352941 -5.764706 -12.047059 94 99 101 
-5.294117 -5.764706 -12.047059 86 91 97 
-8.500000 -9.800000 -20.480000 72 75 75 
-8.400000 -9.800000 -20.480000 60 66 64 
-8.300000 -9.800000 -20.480000 52 55 54 
-8.200000 -9.800000 -20.480000 77 77 75 
-8.100000 -9.800000 -20.480000 94 94 88 
-8.101266 -9.924050 -20.739241 106 105 95 
-8.154839 -10.116129 -21.140646 86 85 78 
-8.156863 -10.248366 -21.416994 60 60 57 
-8.105263 -10.315789 -21.557896 44 43 38 
-8.052980 -10.384106 -21.700663 37 35 24 
-8.000000 -10.453333 -21.845333 55 46 30 
-8.000000 -10.594595 -22.140541 85 70 47 
-8.000000 -10.739726 -22.443836 103 87 60 
-7.944828 -10.813793 -22.598621 95 80 55 
-7.888889 -10.888889 -22.755556 88 75 54 
-7.832168 -10.965035 -22.914686 84 74 57 
-7.829787 -11.120567 -23.239717 81 75 57 
-7.716312 -11.120567 -23.239717 80 76 56 
-7.602837 -11.120567 -23.239717 73 65 45 
-7.542857 -11.200000 -23.405714 68 60 40 
-7.428571 -11.200000 -23.405714 35 33 20 
-7.366907 -11.280576 -23.574100 34 35 31 
-7.304348 -11.362319 -23.744928 41 42 41 
-7.188406 -11.362319 -23.744928 41 41 41 
-7.072464 -11.362319 -23.744928 35 35 33 
-6.857143 -11.200000 -23.405714 43 43 30 
-6.742857 -11.200000 -23.405714 79 78 59 
-6.628572 -11.200000 -23.405714 89 85 67 
-6.422535 -11.042253 -23.076057 90 86 68 
-6.309859 -11.042253 -23.076057 87 83 65 
-5.945946 -10.594595 -22.140541 83 79 60 
-6.000000 -10.888889 -22.755556 69 69 49 
-10.000000 -24.500000 -51.200001 93 93 86 
-9.750000 -24.500000 -51.200001 108 107 97 
-9.500000 -24.500000 -51.200001 100 97 87 
-9.250000 -24.500000 -51.200001 85 82 72 
-9.000000 -24.500000 -51.200001 74 69 59 
-8.750000 -24.500000 -51.200001 73 63 55 
-8.500000 -24.500000 -51.200001 76 60 53 
-8.250000 -24.500000 -51.200001 82 60 55 
-8.000000 -24.500000 -51.200001 85 60 56 
-7.750000 -24.500000 -51.200001 81 61 55 
-7.500000 -24.500000 -51.200001 80 66 57 
-7.250000 -24.500000 -51.200001 90 77 62 
-7.000000 -24.500000 -51.200001 100 89 72 
-6.750000 -24.500000 -51.200001 102 94 81 
-6.500000 -24.500000 -51.200001 79 73 62 
-6.250000 -24.500000 -51.200001 59 53 40 
-6.000000 -24.500000 -51.200001 61 52 37 
-5.750000 -24.500000 -51.200001 78 68 53 
-5.500000 -24.500000 -51.200001 96 85 70 
-5.250000 -24.500000 -51.200001 99 87 72 
-5.000000 -24.500000 -51.200001 99 88 71 
-4.750000 -24.500000 -51.200001 95 86 68 
-4.500000 -24.500000 -51.200001 81 73 54 
-4.250000 -24.500000 -51.200001 82 75 57 
-4.000000 -24.500000 -51.200001 95 90 70 
-3.750000 -24.500000 -51.200001 91 83 61 
-3.500000 -24.500000 -51.200001 74 65 45 
-3.250000 -24.500000 -51.200001 53 47 28 
-3.000000 -24.500000 -51.200001 57 51 31 
-2.750000 -24.500000 -51.200001 63 64 50 
-2.500000 -24.500000 -51.200001 51 55 50 
-2.250000 -24.500000 -51.200001 38 38 37 
-2.000000 -24.500000 -51.200001 41 41 38 
-1.750000 -24.500000 -51.200001 38 38 35 
-1.500000 -24.500000 -51.200001 41 40 37 
-1.250000 -24.500000 -51.200001 45 45 41 
-1.000000 -24.500000 -51.200001 82 84 78 
-0.750000 -24.500000 -51.200001 100 104 100 
-0.500000 -24.500000 -51.200001 63 64 60 
-0.250000 -24.500000 -51.200001 38 38 34 
0.000000 -24.500000 -51.200001 38 39 38 
0.250000 -24.500000 -51.200001 36 37 35 
0.500000 -24.500000 -51.200001 34 34 30 
0.750000 -24.500000 -51.200001 40 39 33 
1.000000 -24.500000 -51.200001 60 60 49 
1.250000 -24.500000 -51.200001 54 49 33 
1.500000 -24.500000 -51.200001 48 40 22 
1.750000 -24.500000 -51.200001 60 50 28 
2.000000 -24.500000 -51.200001 105 90 62 
2.250000 -24.500000 -51.200001 142 126 90 
2.500000 -24.500000 -51.200001 181 160 104 
2.750000 -24.500000 -51.200001 198 168 97 
3.000000 -24.500000 -51.200001 221 191 122 
3.250000 -24.500000 -51.200001 213 189 119 
3.500000 -24.500000 -51.200001 203 174 104 
3.750000 -24.500000 -51.200001 216 184 116 
4.000000 -24.500000 -51.200001 204 172 110 
4.250000 -24.500000 -51.200001 200 170 108 
4.500000 -24.500000 -51.200001 145 120 71 
4.750000 -24.500000 -51.200001 86 65 33 
5.000000 -24.500000 -51.200001 83 68 40 
5.250000 -24.500000 -51.200001 134 120 88 
5.500000 -24.500000 -51.200001 158 141 102 
5.750000 -24.500000 -51.200001 185 162 117 
6.000000 -24.500000 -51.200001 201 176 127 
6.250000 -24.500000 -51.200001 179 144 106 
6.500000 -24.500000 -51.200001 160 108 86 
6.750000 -24.500000 -51.200001 153 96 82 
7.000000 -24.500000 -51.200001 157 100 87 
7.250000 -24.500000 -51.200001 153 98 85 
6.486486 -21.189190 -44.281082 122 78 66 
6.526316 -20.631578 -43.115791 64 40 29 
6.564103 -20.102564 -42.010258 71 56 34 
6.683544 -19.848101 -41.478481 118 103 70 
6.800000 -19.600000 -40.959999 166 150 114 
7.000000 -19.600000 -40.959999 152 138 112 
7.200000 -19.600000 -40.959999 147 135 110 
7.308642 -19.358025 -40.454323 168 147 107 
7.506173 -19.358025 -40.454323 182 154 105 
7.609756 -19.121952 -39.960976 177 151 112 
7.529412 -18.447060 -38.550591 168 144 114 
7.540230 -18.022989 -37.664368 170 149 113 
7.466667 -17.422222 -36.408890 188 167 127 
7.478261 -17.043478 -35.617393 171 153 118 
7.489362 -16.680851 -34.859573 113 101 72 
7.578948 -16.505262 -34.492634 133 124 101 
7.666667 -16.333334 -34.133335 159 151 132 
7.833333 -16.333334 -34.133335 154 144 124 
8.000000 -16.333334 -34.133335 137 124 100 
8.082474 -16.164948 -33.781445 129 115 93 
8.163265 -16.000000 -33.436737 146 130 107 
8.242424 -15.838384 -33.098991 150 131 107 
8.237624 -15.524753 -32.443565 138 121 98 
8.233009 -15.223301 -31.813593 137 121 97 
8.150944 -14.792453 -30.913208 130 118 92 
8.148149 -14.518518 -30.340742 158 143 121 
8.145454 -14.254545 -29.789091 116 102 85 
8.142858 -14.000000 -29.257143 109 101 77 
8.285714 -14.000000 -29.257143 140 132 106 
8.428572 -14.000000 -29.257143 144 140 124 
8.495575 -13.876106 -28.998230 134 134 124 
8.561403 -13.754386 -28.743860 111 108 99 
8.626087 -13.634783 -28.493914 113 106 98 
8.689655 -13.517241 -28.248276 114 104 97 
8.677966 -13.288136 -27.769491 79 68 64 
8.524590 -12.852459 -26.859016 44 37 27 
8.585366 -12.747968 -26.640652 51 46 32 
8.507936 -12.444445 -26.006350 63 61 43 
8.566929 -12.346457 -25.801575 120 113 88 
8.625000 -12.250000 -25.600000 145 128 101 
8.750000 -12.250000 -25.600000 142 125 96 
8.875000 -12.250000 -25.600000 150 131 104 
8.930233 -12.155039 -25.401550 139 121 97 
8.984615 -12.061539 -25.206154 98 87 62 
9.038168 -11.969465 -25.013741 127 115 89 
9.022556 -11.789474 -24.637594 147 129 104 
8.941176 -11.529411 -24.094118 137 120 94 
8.800000 -11.200000 -23.405714 118 103 85 
8.788733 -11.042253 -23.076057 61 54 47 
8.777778 -10.888889 -22.755556 64 63 60 
8.888889 -10.888889 -22.755556 72 68 68 
8.937931 -10.813793 -22.598621 69 60 59 
9.048276 -10.813793 -22.598621 72 64 62 
9.095890 -10.739726 -22.443836 68 68 64 
9.081081 -10.594595 -22.140541 60 61 60 
9.127517 -10.523490 -21.991947 67 69 69 
9.112583 -10.384106 -21.700663 103 113 111 
8.980645 -10.116129 -21.140646 157 166 166 
9.025641 -10.051282 -21.005129 176 182 185 
9.012658 -9.924050 -20.739241 164 166 172 
9.113924 -9.924050 -20.739241 161 162 169 
9.157232 -9.861635 -20.608805 177 180 186 
9.200000 -9.800000 -20.480000 190 193 200 
9.300000 -9.800000 -20.480000 197 199 203 
9.341615 -9.739130 -20.352795 189 188 192 
9.440994 -9.739130 -20.352795 173 171 169 
9.481482 -9.679012 -20.227161 167 160 148 
9.521472 -9.619632 -20.103067 180 164 143 
9.619632 -9.619632 -20.103067 177 155 136 
9.658537 -9.560976 -19.980488 168 145 130 
9.756098 -9.560976 -19.980488 118 106 97 
9.793940 -9.503031 -19.859394 81 78 74 
9.890909 -9.503031 -19.859394 81 82 72 
9.927711 -9.445783 -19.739759 115 110 97 
9.904762 -9.333333 -19.504763 125 115 102 
9.824561 -9.169591 -19.162573 118 108 99 
9.860465 -9.116279 -19.051163 123 116 109 
9.895954 -9.063583 -18.941040 115 112 104 
9.931034 -9.011495 -18.832184 93 92 88 
9.965714 -8.960000 -18.724571 83 82 81 
10.057143 -8.960000 -18.724571 94 91 87 
10.148571 -8.960000 -18.724571 120 113 107 
10.181818 -8.909091 -18.618181 100 96 91 
10.272727 -8.909091 -18.618181 83 81 78 
10.363636 -8.909091 -18.618181 95 94 87 
10.454545 -8.909091 -18.618181 123 120 107 
10.545455 -8.909091 -18.618181 147 135 124 
10.636364 -8.909091 -18.618181 138 123 116 
10.727273 -8.909091 -18.618181 133 122 115 
10.818182 -8.909091 -18.618181 117 112 102 
10.909091 -8.909091 -18.618181 105 102 93 
11.000000 -8.909091 -18.618181 96 92 86 
11.090909 -8.909091 -18.618181 108 100 93 
11.118644 -8.858757 -18.512995 135 127 116 
11.209040 -8.858757 -18.512995 128 119 107 
11.363636 -8.909091 -18.618181 115 110 95 
-5.451852 -5.866667 -12.136296 97 100 104 
-5.372694 -5.845018 -12.091513 79 84 84 
-5.313653 -5.845018 -12.091513 85 91 90 
-5.254612 -5.845018 -12.091513 73 77 78 
-8.400000 -9.900000 -20.480000 58 66 64 
-8.300000 -9.900000 -20.480000 27 34 32 
-8.251573 -9.962264 -20.608805 49 51 51 
-8.202532 -10.025316 -20.739241 88 88 89 
-8.152866 -10.089172 -20.871338 99 99 99 
-8.261438 -10.352942 -21.416994 90 92 90 
-8.320000 -10.560000 -21.845333 59 62 59 
-8.268456 -10.630873 -21.991947 44 45 40 
-8.161074 -10.630873 -21.991947 39 38 28 
-8.108109 -10.702703 -22.140541 55 48 32 
-8.109589 -10.849315 -22.443836 81 67 43 
-8.055172 -10.924138 -22.598621 103 87 58 
-8.000000 -11.000000 -22.755556 96 82 55 
-7.888889 -11.000000 -22.755556 82 71 47 
-7.887324 -11.154929 -23.076057 67 59 39 
-7.829787 -11.234042 -23.239717 73 69 49 
-7.716312 -11.234042 -23.239717 84 81 62 
-7.657143 -11.314285 -23.405714 71 64 46 
-7.542857 -11.314285 -23.405714 67 58 39 
-7.536232 -11.478261 -23.744928 32 29 17 
-7.420290 -11.478261 -23.744928 25 24 22 
-7.466667 -11.733334 -24.272593 45 45 45 
-7.402985 -11.820895 -24.453732 48 48 48 
-7.229630 -11.733334 -24.272593 39 40 39 
-6.956522 -11.478261 -23.744928 46 47 35 
-6.840580 -11.478261 -23.744928 80 79 60 
-6.724638 -11.478261 -23.744928 91 87 67 
-6.608696 -11.478261 -23.744928 89 85 68 
-6.492754 -11.478261 -23.744928 82 78 60 
-6.285714 -11.314285 -23.405714 78 76 56 
-6.595420 -12.091603 -25.013741 66 66 45 
-4.682927 -9.658537 -19.980488 68 64 50 
-4.476191 -9.428572 -19.504763 64 61 48 
-9.750000 -24.750000 -51.200001 99 98 94 
-9.500000 -24.750000 -51.200001 108 107 101 
-9.250000 -24.750000 -51.200001 93 91 85 
-9.000000 -24.750000 -51.200001 77 73 67 
-8.750000 -24.750000 -51.200001 72 67 60 
-8.500000 -24.750000 -51.200001 74 66 59 
-8.250000 -24.750000 -51.200001 73 58 53 
-8.000000 -24.750000 -51.200001 82 62 57 
-7.750000 -24.750000 -51.200001 90 75 68 
-7.500000 -24.750000 -51.200001 82 72 62 
-7.250000 -24.750000 -51.200001 85 76 63 
-7.000000 -24.750000 -51.200001 90 80 66 
-6.750000 -24.750000 -51.200001 99 91 78 
-6.500000 -24.750000 -51.200001 86 79 67 
-6.250000 -24.750000 -51.200001 57 51 38 
-6.000000 -24.750000 -51.200001 53 46 32 
-5.750000 -24.750000 -51.200001 75 67 52 
-5.500000 -24.750000 -51.200001 94 84 69 
-5.250000 -24.750000 -51.200001 99 89 72 
-5.000000 -24.750000 -51.200001 102 92 74 
-4.750000 -24.750000 -51.200001 89 80 62 
-4.500000 -24.750000 -51.200001 80 72 53 
-4.250000 -24.750000 -51.200001 81 73 54 
-4.000000 -24.750000 -51.200001 102 94 70 
-3.750000 -24.750000 -51.200001 116 106 74 
-3.500000 -24.750000 -51.200001 99 86 57 
-3.250000 -24.750000 -51.200001 65 56 31 
-3.000000 -24.750000 -51.200001 78 69 44 
-2.750000 -24.750000 -51.200001 79 80 63 
-2.500000 -24.750000 -51.200001 58 61 59 
-2.250000 -24.750000 -51.200001 37 38 41 
-1.500000 -24.750000 -51.200001 28 31 33 
-1.250000 -24.750000 -51.200001 33 35 37 
-1.000000 -24.750000 -51.200001 86 89 90 
-0.750000 -24.750000 -51.200001 117 123 127 
-0.500000 -24.750000 -51.200001 63 67 70 
-0.250000 -24.750000 -51.200001 25 31 32 
0.000000 -24.750000 -51.200001 25 32 34 
0.250000 -24.750000 -51.200001 21 28 28 
0.500000 -24.750000 -51.200001 20 25 24 
0.750000 -24.750000 -51.200001 29 31 30 
1.000000 -24.750000 -51.200001 58 59 53 
1.250000 -24.750000 -51.200001 62 56 36 
1.500000 -24.750000 -51.200001 62 52 28 
1.750000 -24.750000 -51.200001 79 66 35 
2.000000 -24.750000 -51.200001 137 120 69 
2.250000 -24.750000 -51.200001 196 177 115 
2.500000 -24.750000 -51.200001 204 179 110 
2.750000 -24.750000 -51.200001 197 164 92 
3.000000 -24.750000 -51.200001 211 177 104 
3.250000 -24.750000 -51.200001 209 177 102 
3.500000 -24.750000 -51.200001 216 180 108 
3.750000 -24.750000 -51.200001 221 186 117 
4.000000 -24.750000 -51.200001 197 167 104 
4.250000 -24.750000 -51.200001 199 170 108 
4.500000 -24.750000 -51.200001 151 123 72 
4.750000 -24.750000 -51.200001 106 82 43 
5.000000 -24.750000 -51.200001 98 81 41 
5.250000 -24.750000 -51.200001 158 141 98 
5.500000 -24.750000 -51.200001 193 172 128 
5.750000 -24.750000 -51.200001 199 176 130 
6.000000 -24.750000 -51.200001 172 145 104 
6.250000 -24.750000 -51.200001 150 113 85 
6.500000 -24.750000 -51.200001 153 97 84 
6.750000 -24.750000 -51.200001 154 96 83 
7.000000 -24.750000 -51.200001 157 102 88 
7.250000 -24.750000 -51.200001 145 94 81 
6.486486 -21.405405 -44.281082 114 77 63 
6.526316 -20.842106 -43.115791 63 45 30 
6.564103 -20.307692 -42.010258 86 74 55 
6.683544 -20.050632 -41.478481 129 116 93 
6.800000 -19.799999 -40.959999 156 143 119 
7.000000 -19.799999 -40.959999 155 142 122 
7.200000 -19.799999 -40.959999 167 155 138 
7.308642 -19.555555 -40.454323 175 160 136 
7.506173 -19.555555 -40.454323 165 143 111 
7.609756 -19.317074 -39.960976 176 152 119 
7.529412 -18.635294 -38.550591 180 155 120 
7.540230 -18.206896 -37.664368 181 161 123 
7.384615 -17.406593 -36.008793 184 167 132 
7.478261 -17.217392 -35.617393 177 167 139 
7.489362 -16.851065 -34.859573 148 143 123 
7.578948 -16.673685 -34.492634 142 136 116 
7.666667 -16.500000 -34.133335 146 135 112 
7.833333 -16.500000 -34.133335 143 127 101 
8.000000 -16.500000 -34.133335 142 125 100 
8.082474 -16.329897 -33.781445 113 97 78 
8.163265 -16.163265 -33.436737 138 124 103 
8.242424 -16.000000 -33.098991 156 138 115 
8.237624 -15.683168 -32.443565 150 130 108 
8.233009 -15.378641 -31.813593 167 146 122 
8.150944 -14.943397 -30.913208 153 136 110 
8.148149 -14.666667 -30.340742 135 118 96 
8.072072 -14.270270 -29.520721 98 83 65 
8.142858 -14.142858 -29.257143 98 90 71 
8.285714 -14.142858 -29.257143 138 129 112 
8.353982 -14.017699 -28.998230 137 131 120 
8.421053 -13.894737 -28.743860 115 112 103 
8.486957 -13.773913 -28.493914 115 109 101 
8.551724 -13.655172 -28.248276 110 103 95 
8.542373 -13.423729 -27.769491 84 76 70 
8.605042 -13.310925 -27.536135 57 48 43 
8.455284 -12.878049 -26.640652 36 32 18 
8.448000 -12.672000 -26.214401 54 49 34 
8.507936 -12.571428 -26.006350 53 52 34 
8.566929 -12.472441 -25.801575 99 97 70 
8.625000 -12.375000 -25.600000 143 127 100 
8.750000 -12.375000 -25.600000 153 133 105 
8.875000 -12.375000 -25.600000 145 126 99 
8.930233 -12.279070 -25.401550 125 107 84 
8.984615 -12.184615 -25.206154 102 90 65 
8.969697 -12.000000 -24.824244 149 134 106 
8.955224 -11.820895 -24.453732 152 130 102 
8.875913 -11.562044 -23.918249 136 119 90 
8.800000 -11.314285 -23.405714 118 103 85 
8.727273 -11.076923 -22.914686 65 56 50 
8.777778 -11.000000 -22.755556 64 59 57 
8.888889 -11.000000 -22.755556 72 65 63 
8.937931 -10.924138 -22.598621 74 71 68 
8.986301 -10.849315 -22.443836 82 86 83 
9.095890 -10.849315 -22.443836 109 114 115 
9.081081 -10.702703 -22.140541 89 90 93 
9.066667 -10.560000 -21.845333 63 65 69 
9.112583 -10.490067 -21.700663 96 107 110 
8.980645 -10.219355 -21.140646 159 169 174 
8.968153 -10.089172 -20.871338 162 167 175 
9.012658 -10.025316 -20.739241 163 166 175 
9.056603 -9.962264 -20.608805 179 181 190 
9.157232 -9.962264 -20.608805 195 196 205 
9.200000 -9.900000 -20.480000 198 197 205 
9.300000 -9.900000 -20.480000 192 193 196 
9.341615 -9.838510 -20.352795 177 177 178 
9.440994 -9.838510 -20.352795 155 151 144 
9.481482 -9.777778 -20.227161 140 129 112 
9.580247 -9.777778 -20.227161 160 145 127 
9.619632 -9.717792 -20.103067 167 150 140 
9.717792 -9.717792 -20.103067 153 138 127 
9.756098 -9.658537 -19.980488 123 116 103 
9.853659 -9.658537 -19.980488 101 99 91 
9.951220 -9.658537 -19.980488 120 117 104 
9.987879 -9.600000 -19.859394 132 121 107 
10.024096 -9.542169 -19.739759 116 108 99 
10.000000 -9.428572 -19.504763 89 87 81 
9.918129 -9.263158 -19.162573 91 91 87 
9.953488 -9.209302 -19.051163 117 117 110 
9.988440 -9.156070 -18.941040 137 131 125 
10.022988 -9.103448 -18.832184 122 117 113 
10.057143 -9.051429 -18.724571 107 104 101 
10.148571 -9.051429 -18.724571 132 125 122 
10.240000 -9.051429 -18.724571 120 110 107 
10.272727 -9.000000 -18.618181 96 92 86 
10.363636 -9.000000 -18.618181 122 117 108 
10.454545 -9.000000 -18.618181 143 130 117 
10.545455 -9.000000 -18.618181 132 118 107 
10.636364 -9.000000 -18.618181 99 93 87 
10.727273 -9.000000 -18.618181 96 93 90 
10.818182 -9.000000 -18.618181 121 115 106 
10.909091 -9.000000 -18.618181 140 126 117 
11.000000 -9.000000 -18.618181 129 117 111 
11.090909 -9.000000 -18.618181 110 103 96 
11.181818 -9.000000 -18.618181 139 131 124 
11.272727 -9.000000 -18.618181 134 124 116 
11.363636 -9.000000 -18.618181 125 115 106 
-5.533834 -6.015038 -12.318797 106 107 113 
-5.392592 -5.925926 -12.136296 93 98 97 
-5.333333 -5.925926 -12.136296 88 94 90 
-5.274074 -5.925926 -12.136296 80 83 81 
-5.253731 -5.970149 -12.226866 83 83 83 
-8.356688 -10.191083 -20.871338 31 34 37 
-8.254777 -10.191083 -20.871338 81 81 87 
-8.476821 -10.596026 -21.700663 99 101 108 
-8.483221 -10.738256 -21.991947 83 89 92 
-8.489796 -10.884354 -22.291157 57 62 60 
-8.380953 -10.884354 -22.291157 46 47 42 
-8.272109 -10.884354 -22.291157 43 42 33 
-8.219178 -10.958904 -22.443836 59 52 36 
-8.165517 -11.034483 -22.598621 79 65 42 
-8.111111 -11.111111 -22.755556 104 88 60 
-8.000000 -11.111111 -22.755556 103 88 60 
-7.944056 -11.188811 -22.914686 98 84 60 
-7.943263 -11.347518 -23.239717 84 74 53 
-7.885714 -11.428572 -23.405714 72 66 45 
-7.771429 -11.428572 -23.405714 75 69 49 
-7.712230 -11.510792 -23.574100 69 61 45 
-7.652174 -11.594203 -23.744928 65 58 40 
-7.647059 -11.764706 -24.094118 34 32 20 
-7.641791 -11.940298 -24.453732 22 22 20 
-7.578948 -12.030075 -24.637594 39 39 39 
-7.458647 -12.030075 -24.637594 51 51 51 
-7.338346 -12.030075 -24.637594 49 49 48 
-7.164179 -11.940298 -24.453732 42 43 34 
-7.044776 -11.940298 -24.453732 72 71 53 
-6.925373 -11.940298 -24.453732 90 87 65 
-6.909091 -12.121212 -24.824244 88 85 65 
-6.839694 -12.213740 -25.013741 72 69 50 
-6.717557 -12.213740 -25.013741 68 66 47 
-6.697674 -12.403101 -25.401550 67 67 47 
-4.900000 -10.000000 -20.480000 73 70 54 
-4.491228 -9.356725 -19.162573 69 66 51 
-4.372093 -9.302325 -19.051163 58 54 42 
-4.279070 -9.302325 -19.051163 62 58 48 
-8.320000 -21.333334 -43.690666 76 75 71 
-7.896104 -20.779221 -42.555843 86 85 81 
-7.893333 -21.333334 -43.690666 78 77 74 
-7.680000 -21.333334 -43.690666 64 64 57 
-8.750000 -25.000000 -51.200001 51 51 42 
-8.500000 -25.000000 -51.200001 59 55 47 
-8.250000 -25.000000 -51.200001 75 66 58 
-8.000000 -25.000000 -51.200001 77 63 57 
-7.750000 -25.000000 -51.200001 99 88 79 
-7.500000 -25.000000 -51.200001 91 83 73 
-7.250000 -25.000000 -51.200001 82 75 64 
-7.000000 -25.000000 -51.200001 93 85 72 
-6.750000 -25.000000 -51.200001 91 83 71 
-6.500000 -25.000000 -51.200001 77 71 60 
-6.250000 -25.000000 -51.200001 47 43 30 
-6.000000 -25.000000 -51.200001 45 40 26 
-5.750000 -25.000000 -51.200001 73 64 50 
-5.500000 -25.000000 -51.200001 98 86 70 
-5.250000 -25.000000 -51.200001 99 88 70 
-5.000000 -25.000000 -51.200001 102 91 73 
-4.750000 -25.000000 -51.200001 89 80 62 
-4.500000 -25.000000 -51.200001 84 76 57 
-4.250000 -25.000000 -51.200001 80 72 53 
-4.000000 -25.000000 -51.200001 96 86 63 
-3.750000 -25.000000 -51.200001 116 102 70 
-3.500000 -25.000000 -51.200001 105 91 60 
-3.250000 -25.000000 -51.200001 67 56 31 
-3.000000 -25.000000 -51.200001 92 81 51 
-2.750000 -25.000000 -51.200001 96 94 74 
-2.500000 -25.000000 -51.200001 70 72 70 
-1.000000 -25.000000 -51.200001 97 100 103 
-0.750000 -25.000000 -51.200001 132 138 146 
-0.500000 -25.000000 -51.200001 78 83 87 
-0.250000 -25.000000 -51.200001 41 48 49 
0.000000 -25.000000 -51.200001 38 47 47 
0.250000 -25.000000 -51.200001 34 41 41 
1.000000 -25.000000 -51.200001 65 65 59 
1.250000 -25.000000 -51.200001 79 72 45 
1.500000 -25.000000 -51.200001 70 58 30 
1.750000 -25.000000 -51.200001 90 76 42 
2.000000 -25.000000 -51.200001 166 143 87 
2.250000 -25.000000 -51.200001 228 205 134 
2.500000 -25.000000 -51.200001 212 186 114 
2.750000 -25.000000 -51.200001 197 165 92 
3.000000 -25.000000 -51.200001 201 166 93 
3.250000 -25.000000 -51.200001 203 170 99 
3.500000 -25.000000 -51.200001 224 187 122 
3.750000 -25.000000 -51.200001 219 184 121 
4.000000 -25.000000 -51.200001 195 164 102 
4.250000 -25.000000 -51.200001 202 173 110 
4.500000 -25.000000 -51.200001 152 123 72 
4.750000 -25.000000 -51.200001 115 90 46 
5.000000 -25.000000 -51.200001 111 92 47 
5.250000 -25.000000 -51.200001 174 153 111 
5.500000 -25.000000 -51.200001 188 164 126 
5.750000 -25.000000 -51.200001 166 141 106 
6.000000 -25.000000 -51.200001 156 130 98 
6.250000 -25.000000 -51.200001 148 114 89 
6.500000 -25.000000 -51.200001 149 100 85 
6.750000 -25.000000 -51.200001 150 96 82 
7.000000 -25.000000 -51.200001 142 95 80 
7.250000 -25.000000 -51.200001 130 91 77 
6.486486 -21.621622 -44.281082 122 95 80 
6.526316 -21.052631 -43.115791 87 72 56 
6.564103 -20.512821 -42.010258 87 75 56 
6.683544 -20.253164 -41.478481 129 117 96 
6.800000 -20.000000 -40.959999 148 136 116 
7.000000 -20.000000 -40.959999 159 147 130 
7.200000 -20.000000 -40.959999 154 144 130 
7.308642 -19.753086 -40.454323 143 131 112 
7.506173 -19.753086 -40.454323 162 144 116 
7.609756 -19.512196 -39.960976 189 166 132 
7.529412 -18.823530 -38.550591 188 164 131 
7.540230 -18.390804 -37.664368 170 156 130 
7.384615 -17.582418 -36.008793 159 152 136 
7.478261 -17.391304 -35.617393 150 147 135 
7.489362 -17.021276 -34.859573 136 131 118 
7.578948 -16.842106 -34.492634 129 119 98 
7.747368 -16.842106 -34.492634 143 128 99 
7.833333 -16.666666 -34.133335 148 127 99 
8.000000 -16.666666 -34.133335 137 118 96 
